# .PCD v0.7 - Point Cloud Data file format
VERSION 0.7
FIELDS x y z intensity
SIZE 4 4 4 4
TYPE F F F F
COUNT 1 1 1 1
WIDTH 1342
HEIGHT 1
VIEWPOINT 0 0 0 1 0 0 0
POINTS 1342
DATA ascii
17.055445 8.9600954 -1.7195691 3.3333333
17.146107 8.906538 -1.7155358 3.3333333
17.231449 8.9505835 -1.7291178 3.3333333
17.351002 8.9157772 -1.701794 0
17.452557 8.9538231 -1.7384218 0
17.580173 8.9368477 -1.734682 0
16.547844 9.0717726 -1.7306999 3.3333333
16.655333 9.0286455 -1.7128071 4.4444447
16.862186 9.0427008 -1.713097 3.3333333
16.965496 9.0655422 -1.7353948 3.3333333
17.014864 9.0313835 -1.7342528 3.3333333
17.442587 9.0408554 -1.7227837 0
16.336872 9.1992178 -1.7087477 3.3333333
16.460899 9.1452141 -1.7133824 3.3333333
16.544012 9.1414328 -1.7072083 3.3333333
16.647446 9.1264582 -1.7235695 3.3333333
16.753593 9.1525087 -1.7383965 3.3333333
16.832251 9.151763 -1.7448901 2.5
16.240244 9.2745056 -1.7211443 3.3333333
16.3813 9.2585649 -1.7336634 3.3333333
16.462296 9.2106256 -1.7317144 3.3333333
16.553448 9.2828608 -1.7264274 3.3333333
16.63513 9.2302332 -1.7344431 3.3333333
16.831837 9.2270594 -1.7395567 2.5
15.693127 9.3942566 -1.7096795 2.5
16.264029 9.3625259 -1.7328976 3.3333333
16.344734 9.3438702 -1.7337693 3.3333333
16.404604 9.322319 -1.7556418 3.3333333
16.689716 9.3800554 -1.7448677 3.3333333
16.703489 9.3972816 -1.7245673 2.5
15.655988 9.4787827 -1.7229868 2.5
15.838887 9.4401121 -1.7200168 2.5
15.967277 9.465023 -1.7287277 2.5
16.298265 9.4811487 -1.7025989 3.3333333
16.331848 9.454113 -1.7356275 3.3333333
16.438845 9.4595547 -1.7194341 3.3333333
16.549618 9.4536285 -1.726663 3.3333333
16.647072 9.4744072 -1.7404526 3.3333333
15.656921 9.5444012 -1.7217699 2.5
15.726521 9.5026627 -1.7259487 2.5
15.867193 9.5002594 -1.7053941 2.5
15.930832 9.5421715 -1.7261518 2.5
16.029961 9.5684986 -1.7356175 2.5
16.16205 9.5508614 -1.739642 0
16.221233 9.5600309 -1.7488886 0
16.333128 9.5441732 -1.7400173 0
16.435551 9.5349512 -1.7482904 0
16.586149 9.5600567 -1.7488278 3.3333333
16.630531 9.5600557 -1.7673429 3.3333333
16.767237 9.5478363 -1.7699794 2.5
16.811926 9.5871277 -1.7550896 2.5
15.859673 9.6327353 -1.7308224 2.5
15.953516 9.6687965 -1.7523831 2.5
16.152805 9.6498537 -1.750152 0
16.253412 9.6501131 -1.7435244 0
16.339884 9.6462708 -1.7533389 0
16.460865 9.6405659 -1.7628554 0
16.551073 9.6353893 -1.7590355 0
16.852806 9.6229172 -1.7486027 2.5
16.903288 9.6292324 -1.7895733 2.5
17.121639 9.6960983 -1.7669839 0
17.296677 9.6079903 -1.7601165 0
17.330811 9.6622124 -1.7627243 0
17.45435 9.6704102 -1.787074 0
16.506168 9.7011356 -1.7642926 0
16.624212 9.710783 -1.7815849 0
16.749992 9.7267866 -1.7765623 0
16.966967 9.7574263 -1.7754029 0
17.099361 9.7991619 -1.779982 0
17.126057 9.7454634 -1.7672473 0
17.247309 9.7613077 -1.7602156 0
17.368404 9.7349577 -1.7741638 0
17.444475 9.7608309 -1.7899641 0
16.744543 9.8792334 -1.7682141 0
16.868475 9.8621063 -1.7716755 0
16.923626 9.8338966 -1.7679538 0
17.059866 9.8419867 -1.7870637 0
17.168045 9.8609409 -1.7752765 0
17.255892 9.8532038 -1.7717379 0
17.353466 9.8553858 -1.7806529 0
17.471201 9.8364649 -1.7821215 0
16.860569 9.9357681 -1.7901968 0
16.936769 9.93297 -1.7912101 0
17.098816 9.9181976 -1.7939056 0
17.260492 9.9408331 -1.7926332 0
17.151367 10.022827 -1.7794789 0
17.256588 10.007849 -1.7780751 0
17.530087 8.2538176 -1.6679295 2.5
16.438395 8.5563412 -1.637762 4.4444447
16.535307 8.5284395 -1.6802682 4.4444447
16.46582 8.6617279 -1.6508898 4.4444447
16.575773 8.6634588 -1.684394 4.4444447
16.64835 8.632658 -1.6662821 4.4444447
16.780611 8.6723251 -1.6756026 4.4444447
16.858921 8.646965 -1.6510428 4.4444447
16.9429 8.6616983 -1.6768011 3.3333333
17.623644 8.6392546 -1.6751951 2.5
16.364592 8.746747 -1.6655296 4.4444447
16.4258 8.7097473 -1.6378325 4.4444447
16.539333 8.7440834 -1.6792959 4.4444447
16.614771 8.7446537 -1.6743344 4.4444447
16.797331 8.7410145 -1.6957439 4.4444447
16.874298 8.7384844 -1.6844312 3.3333333
16.936592 8.7664795 -1.6967245 3.3333333
17.001177 8.728384 -1.6881305 3.3333333
17.235321 8.7438202 -1.6927499 3.3333333
17.303892 8.7842674 -1.6973799 3.3333333
17.641478 8.7439661 -1.6942993 2.5
16.485794 8.8670826 -1.6622213 4.4444447
16.524036 8.8780022 -1.6742438 4.4444447
16.641455 8.8173742 -1.6902038 4.4444447
16.770224 8.8719845 -1.6908997 4.4444447
16.850582 8.8837671 -1.6800069 3.3333333
16.960489 8.8303404 -1.6693524 3.3333333
17.208202 8.8022366 -1.6945165 3.3333333
17.384411 8.8196964 -1.6819667 0
17.46489 8.8159084 -1.6974276 0
17.529865 8.8471832 -1.6943134 0
16.564358 8.9460888 -1.6922635 4.4444447
16.665964 8.9752626 -1.6871194 4.4444447
16.7724 8.9157934 -1.6681784 4.4444447
16.805202 8.9052181 -1.6733149 4.4444447
16.342813 9.0565948 -1.6826757 3.3333333
16.411137 9.0684166 -1.6766957 3.3333333
16.5679 9.0998077 -1.6956633 3.3333333
16.627781 9.0138903 -1.6696967 4.4444447
16.719879 9.0204258 -1.6915439 4.4444447
16.253365 9.1691732 -1.6842998 3.3333333
16.338512 9.1266918 -1.6941038 3.3333333
16.439058 9.1146059 -1.6814636 3.3333333
16.520155 9.1352501 -1.6939205 3.3333333
15.841904 9.3998413 -1.6976284 2.5
16.209085 9.3632011 -1.69427 3.3333333
16.448624 9.3381462 -1.6969916 3.3333333
16.694878 9.3259869 -1.698511 3.3333333
15.761466 9.4559031 -1.6870803 2.5
15.825067 9.4080696 -1.6933388 2.5
11.057447 -1.4689219 -0.5056864 0
11.131416 -1.4806141 -0.50241315 0
11.252879 -1.4614031 -0.50441247 0
11.382725 -1.4221286 -0.50730503 0
11.470991 -1.4336406 -0.5046829 0
11.162859 -1.3306592 -0.50903469 0
11.292862 -1.3173455 -0.50958371 0
11.341305 -1.3901558 -0.50517237 0
11.433581 -1.3371339 -0.50280517 0
11.660605 -1.3396281 -0.50979191 0
11.771566 -1.3376774 -0.50579476 0
11.845052 -1.3577061 -0.50522852 0
11.966611 -1.3309879 -0.51617914 0
11.078518 -1.2570906 -0.50055659 0
11.162117 -1.261199 -0.50644547 0
11.242695 -1.2530701 -0.50640839 0
11.341745 -1.2509943 -0.50688279 0
11.442664 -1.2484705 -0.50598603 0
11.555852 -1.2582262 -0.50628728 0
11.65713 -1.2520101 -0.50428331 0
11.771873 -1.2894868 -0.50842798 0
11.864326 -1.224897 -0.50729805 0
12.019197 -1.2824186 -0.50350118 0
12.150692 -1.2517443 -0.50394148 0
12.235309 -1.2474182 -0.50431126 0
12.331674 -1.2244211 -0.51640123 0
11.095956 -1.1752053 -0.50701052 0
11.146261 -1.1501998 -0.50367934 0
11.216092 -1.1433047 -0.50638497 0
11.323997 -1.163668 -0.50783926 0
11.45612 -1.1615473 -0.50766522 0
11.549526 -1.1441123 -0.50585961 0
11.627498 -1.1568811 -0.50511336 0
11.8328 -1.1610817 -0.50658202 0
11.922696 -1.1924281 -0.5472846 0
12.266991 -1.153583 -0.51097775 0
12.311105 -1.1460841 -0.50708234 0
12.488643 -1.1418371 -0.5140959 0
12.54614 -1.1664451 -0.50279444 0
12.627428 -1.1438749 -0.51156843 0
11.084053 -1.0513306 -0.50638723 0
11.130269 -1.0441772 -0.51125926 0
11.288885 -1.040079 -0.50722897 0
11.356684 -1.0314398 -0.5044899 0
11.424482 -1.0545337 -0.5031966 0
11.545867 -1.0679274 -0.50263309 0
11.650501 -1.0368539 -0.50968683 0
11.741621 -1.0131899 -0.50829029 0
11.85634 -1.03084 -0.50795543 0
11.939712 -1.0754979 -0.52434957 0
12.072071 -1.0532964 -0.50811809 0
12.16612 -1.0198133 -0.51238745 0
12.215764 -1.0764161 -0.50951654 0
12.360794 -1.0415207 -0.50592732 0
12.455857 -1.0313487 -0.50571048 0
12.659724 -1.0388913 -0.50642735 0
12.825347 -1.0432388 -0.51152432 0
12.972959 -1.0727744 -0.50430381 0
13.073771 -1.0330951 -0.50776315 0
10.967657 -0.92595381 -0.5027855 0
11.096375 -0.98024726 -0.50581056 0
11.172737 -0.94959307 -0.50148022 0
11.236161 -0.95693547 -0.50544596 0
11.353296 -0.94766271 -0.50566286 0
11.432379 -0.94580913 -0.5093174 0
11.534466 -0.94501358 -0.50626916 0
11.653654 -0.93771249 -0.50749767 0
11.735654 -0.9896695 -0.50672674 0
11.885788 -0.93404728 -0.52139133 0
11.962712 -0.93074423 -0.50576186 0
12.049273 -0.9288792 -0.50415468 0
12.163309 -0.96846288 -0.51256311 0
12.279413 -0.92997819 -0.50869441 0
12.334681 -0.93424112 -0.51347911 0
12.456914 -0.9251107 -0.50621241 0
12.563875 -0.95355487 -0.50409681 0
12.664678 -0.94172949 -0.50993782 0
12.731006 -0.92808121 -0.50628728 0
12.854376 -0.97086972 -0.51194531 0
12.976388 -0.94404179 -0.50686258 0
13.051898 -0.94003671 -0.50757253 0
13.116824 -0.93884718 -0.50492305 0
11.039213 -0.87685955 -0.50316852 0
11.138398 -0.82915664 -0.50162899 0
11.393026 -0.86484128 -0.51256508 0
11.4455 -0.88805377 -0.501616 0
11.559094 -0.86056566 -0.50706762 0
11.651721 -0.84327734 -0.50186259 0
11.855475 -0.85339344 -0.50650615 0
11.957432 -0.85466093 -0.50871927 0
12.028756 -0.81704807 -0.51310354 0
12.12935 -0.85176939 -0.51091558 0
12.233759 -0.85202706 -0.50423813 0
12.359954 -0.8554346 -0.50270146 0
12.45715 -0.80216563 -0.50216436 0
12.571011 -0.86087215 -0.50435245 0
12.609686 -0.84807527 -0.50369418 0
12.763161 -0.8419317 -0.50671029 0
12.859615 -0.87193388 -0.5040794 0
12.982599 -0.81092823 -0.50391191 0
13.018498 -0.82826918 -0.50255919 0
13.101299 -0.87059724 -0.54091257 0
11.000031 -0.71011239 -0.50159419 0
11.119869 -0.75789344 -0.50461531 0
11.213489 -0.72404563 -0.50350028 0
11.354691 -0.75653142 -0.5050506 0
11.644852 -0.72226775 -0.50824714 0
11.825038 -0.71506906 -0.50257874 0
11.974668 -0.77754021 -0.5027774 0
12.067372 -0.77767658 -0.50719059 0
12.1255 -0.73434001 -0.50504041 0
12.239968 -0.74131823 -0.5085206 0
12.339424 -0.74408621 -0.51369011 0
12.554871 -0.77074701 -0.50820833 0
12.686339 -0.73200786 -0.50883162 0
12.770287 -0.73800689 -0.50718468 0
12.851312 -0.76491022 -0.50716937 0
12.95308 -0.77536196 -0.50954473 0
13.199784 -0.70129025 -0.50431365 0
11.059322 -0.64550513 -0.50672942 0
11.160859 -0.62928629 -0.50476354 0
11.242894 -0.6476661 -0.51013947 0
11.33627 -0.62906367 -0.50391662 0
11.405354 -0.64764297 -0.50309289 0
11.552064 -0.6316421 -0.50108433 0
11.697753 -0.6467334 -0.50839877 0
11.853229 -0.68441767 -0.54221576 0
11.991676 -0.6277647 -0.50260675 0
12.045566 -0.65148079 -0.50365919 0
12.138213 -0.68877643 -0.50082827 0
12.269375 -0.69391853 -0.5214079 0
12.364017 -0.6448707 -0.51338053 0
12.415038 -0.69834244 -0.50868672 0
12.540093 -0.67040908 -0.50943333 0
12.656639 -0.65891039 -0.50763786 0
12.723769 -0.6399399 -0.50937706 0
12.855988 -0.6602779 -0.5048269 0
12.940986 -0.6706093 -0.50471836 0
13.066502 -0.64531446 -0.50655246 0
13.168506 -0.64675492 -0.52610797 0
11.07767 -0.53039318 -0.50579321 0
11.296657 -0.5919683 -0.5017429 0
11.356694 -0.57137835 -0.50440729 0
11.434335 -0.52643687 -0.50271386 0
11.754664 -0.55476183 -0.50320274 0
11.853549 -0.52997851 -0.516096 0
12.153746 -0.54813075 -0.51581061 0
12.236011 -0.53511745 -0.50593281 0
12.493427 -0.53849798 -0.50300837 0
12.580415 -0.54141307 -0.50194371 0
12.676224 -0.56497312 -0.50781423 0
12.772756 -0.57678646 -0.51103801 0
12.859169 -0.55460042 -0.50923002 0
12.941465 -0.55392355 -0.50599062 0
13.028269 -0.54130018 -0.51341891 0
13.144982 -0.53782636 -0.50343436 0
13.477524 -0.53411305 -0.51462239 0
11.151681 -0.48778474 -0.50348651 0
11.252042 -0.47142401 -0.50464839 0
11.368797 -0.47410053 -0.50477093 0
11.465938 -0.45866781 -0.50452274 0
11.569622 -0.4071036 -0.50542128 0
11.988598 -0.41339409 -0.50022697 0
12.039759 -0.42726123 -0.5262143 0
12.189934 -0.42356399 -0.54052591 0
12.261139 -0.49886546 -0.50217724 0
12.327385 -0.42867035 -0.5042612 0
12.583353 -0.46540096 -0.50831419 0
12.621664 -0.42417407 -0.50845015 0
12.766418 -0.44622561 -0.51158416 0
12.939246 -0.47270906 -0.50877708 0
13.062598 -0.48796913 -0.5043841 0
11.549253 -0.31657311 -0.51385939 0
11.711233 -0.36490998 -0.50610089 0
11.837715 -0.39920354 -0.54089755 0
12.031782 -0.31556639 -0.53237915 0
12.111876 -0.38085237 -0.50350434 0
12.245781 -0.3621164 -0.50190043 0
12.384219 -0.35370192 -0.50659525 0
12.456371 -0.34555021 -0.50170958 0
12.548347 -0.36925763 -0.50562173 0
12.654678 -0.35899615 -0.50409096 0
12.786853 -0.36708459 -0.50532466 0
12.828555 -0.3519063 -0.51356119 0
13.083425 -0.38904673 -0.50623298 0
11.476672 -0.2461217 -0.52387124 0
11.529238 -0.24225716 -0.50296807 0
12.118274 -0.24911185 -0.53863204 0
12.228378 -0.27928808 -0.50088215 0
12.346515 -0.26901579 -0.50437474 0
12.45689 -0.25857359 -0.50964993 0
12.534467 -0.24974822 -0.5029887 0
12.656097 -0.22023542 -0.50591815 0
12.753828 -0.2546663 -0.51142925 0
12.832273 -0.29832432 -0.50469726 0
11.067215 -0.13422413 -0.5046882 0
12.557055 -0.1872128 -0.50030679 0
11.900295 0.44881916 -0.50043958 0
19.398109 1.897083 -0.50191915 3.3333333
19.431086 1.8614647 -0.5000084 3.3333333
19.276163 1.9704062 -0.50390637 3.3333333
19.336187 1.9586638 -0.50211185 3.3333333
19.457958 1.9249227 -0.50612861 3.3333333
18.958376 2.0762458 -0.50640857 1.25
19.257248 2.0675192 -0.51123154 2.5
19.334879 2.0606155 -0.51286054 2.5
19.415102 2.0489995 -0.5175845 2.5
18.948051 2.1547728 -0.50598478 1.25
19.099916 2.1018353 -0.5080511 2.5
19.169224 2.1629632 -0.50994694 2.5
19.23871 2.162426 -0.5213517 2.5
19.338789 2.1419187 -0.52010417 2.5
18.661179 2.2324939 -0.50094652 1.25
18.834656 2.2730238 -0.50649387 1.25
18.98978 2.2375486 -0.51717561 2.5
19.017178 2.2597361 -0.51090914 2.5
19.176975 2.238471 -0.5068953 2.5
19.26935 2.2619858 -0.53115934 2.5
19.33869 2.2520654 -0.52452272 2.5
18.633158 2.3547175 -0.50453699 3.75
18.750599 2.31826 -0.50965595 1.25
18.871082 2.3461425 -0.50973928 1.25
18.917904 2.3461401 -0.51018083 1.25
19.059258 2.3357193 -0.52119857 2.5
19.134338 2.3647835 -0.54580158 2.5
19.255581 2.3474011 -0.51613152 2.5
18.402197 2.4475133 -0.50522679 3.75
18.610746 2.4090748 -0.50611013 3.75
18.746737 2.4015558 -0.50717771 3.75
18.864717 2.4216256 -0.51015919 3.75
19.049507 2.4394798 -0.52458483 2.5
19.171221 2.4393234 -0.54486167 2.5
19.243605 2.4363363 -0.50396347 2.5
19.332026 2.4852757 -0.52921659 2.5
18.344788 2.5374913 -0.50259805 2.5
18.458385 2.5433707 -0.51010251 3.75
18.573357 2.5942969 -0.51724398 3.75
18.640751 2.5434647 -0.50788039 3.75
18.755411 2.5764589 -0.50914311 3.75
18.867001 2.5251963 -0.51028025 3.75
18.328106 2.604974 -0.50214851 2.5
18.422184 2.6606526 -0.50643378 3.75
18.547888 2.6908522 -0.50605744 3.75
18.76368 2.683171 -0.50893503 3.75
18.443748 2.7880726 -0.50644946 3.75
18.52824 2.7941077 -0.50333428 3.75
18.664671 2.7772186 -0.51758814 3.75
18.767784 2.7482629 -0.5088135 3.75
18.49551 2.8947792 -0.50992441 2.5
18.541033 2.872287 -0.50794071 2.5
18.616367 2.8914614 -0.50390172 2.5
18.722874 2.8811233 -0.51042062 2.5
18.562401 2.9371023 -0.50891781 2.5
18.642809 2.9564862 -0.50686556 2.5
18.838799 2.9164643 -0.5103398 2.5
18.747646 3.0279205 -0.50320196 2.5
18.853466 3.0347991 -0.50809693 2.5
19.067076 3.0307999 -0.50680059 2.5
19.144083 3.0000677 -0.50720406 2.5
18.967846 3.124332 -0.50175953 2.5
19.094934 3.1509221 -0.50774491 2.5
19.135214 3.1493711 -0.50173712 2.5
10.359564 -1.449847 -0.46443784 0
10.748298 -1.4346373 -0.45419574 0
10.85189 -1.4587747 -0.45976579 0
10.946099 -1.4550711 -0.46620727 0
11.044122 -1.4355441 -0.47105765 0
11.153419 -1.4537978 -0.46259326 0
11.257182 -1.4484035 -0.47337592 0
11.350675 -1.4611388 -0.48181832 0
11.460211 -1.4364431 -0.47261655 0
10.237434 -1.3543632 -0.44143152 0
10.350052 -1.3558592 -0.45022035 0
10.433637 -1.3584194 -0.43617666 0
10.539533 -1.3294955 -0.45099676 0
10.643684 -1.3438281 -0.45117605 0
10.756528 -1.3452113 -0.44610411 0
10.849664 -1.3500134 -0.44425273 0
10.945118 -1.3482025 -0.46280545 0
11.037157 -1.3511819 -0.47121906 0
11.125568 -1.3304361 -0.47549868 0
11.243988 -1.3538334 -0.47270602 0
11.341031 -1.3428299 -0.47941941 0
11.455647 -1.3575748 -0.47248864 0
11.552414 -1.3455434 -0.4652952 0
11.649169 -1.3623126 -0.48416269 0
11.760757 -1.3414232 -0.47994709 0
11.848136 -1.3379505 -0.48746723 0
10.133089 -1.2605839 -0.43730623 0
10.255812 -1.2245525 -0.45614219 0
10.361309 -1.2467905 -0.45087254 0
10.452757 -1.247707 -0.44661903 0
10.558909 -1.2377589 -0.45045626 0
10.657194 -1.2601519 -0.44307745 0
10.744368 -1.2474384 -0.45321745 0
10.867697 -1.2573832 -0.45763755 0
10.936925 -1.2351989 -0.46514642 0
11.024525 -1.2390475 -0.43211865 0
11.134898 -1.2543963 -0.48402178 0
11.22991 -1.2474302 -0.47548103 0
11.364912 -1.2438431 -0.48292911 0
11.444725 -1.2406888 -0.48593569 0
11.562307 -1.2493526 -0.48201537 0
11.642417 -1.2523347 -0.46174061 0
11.767075 -1.2492081 -0.47202003 0
11.815218 -1.2942179 -0.49773765 0
11.964292 -1.2665628 -0.47946674 0
12.054671 -1.2391906 -0.48126721 0
12.155698 -1.2476562 -0.47960591 0
12.255171 -1.2491307 -0.4650985 0
10.170864 -1.1697398 -0.4406935 0
10.241641 -1.1511825 -0.4544971 0
10.342285 -1.1544106 -0.45592713 0
10.443964 -1.1427331 -0.45060349 0
10.551211 -1.1606157 -0.45539951 0
10.672275 -1.1638213 -0.46226645 0
10.750874 -1.1629658 -0.45401382 0
10.84938 -1.1407118 -0.45091575 0
10.946568 -1.1497207 -0.46039164 0
11.068262 -1.1643507 -0.48400789 0
11.151604 -1.1516745 -0.48611796 0
11.242696 -1.1686769 -0.48546243 0
11.312735 -1.139024 -0.48919618 0
11.457548 -1.136421 -0.48530978 0
11.554727 -1.1336288 -0.48544407 0
11.650823 -1.1490289 -0.469679 0
11.759321 -1.1245292 -0.48870611 0
11.859081 -1.1514177 -0.48155755 0
11.941825 -1.1460164 -0.46859205 0
12.038034 -1.1670531 -0.47227401 0
12.129383 -1.1683112 -0.47609156 0
12.231295 -1.1465547 -0.47527552 0
12.362193 -1.1563936 -0.48549342 0
12.444755 -1.1238425 -0.45897675 0
12.548749 -1.1464518 -0.4833892 0
10.057451 -1.0524142 -0.42297208 0
10.168988 -1.0429834 -0.43730152 0
10.251109 -1.0533704 -0.44436544 0
10.351606 -1.0416242 -0.4268626 0
10.447234 -1.0257214 -0.46181047 0
10.551202 -1.0491667 -0.44333011 0
10.652935 -1.0627159 -0.45387328 0
10.755487 -1.0624729 -0.44902313 0
10.868702 -1.0669399 -0.45724702 0
10.936045 -1.0676925 -0.47273648 0
11.047504 -1.0381612 -0.46954483 0
11.152493 -1.0559434 -0.48710442 0
11.255516 -1.0578011 -0.48541677 0
11.333279 -1.0426673 -0.4943279 0
11.450316 -1.0393226 -0.48375666 0
11.556287 -1.027016 -0.46135199 0
11.637675 -1.0451381 -0.4862057 0
11.758177 -1.0452464 -0.46460313 0
11.857085 -1.0552582 -0.47389805 0
11.943844 -1.0536182 -0.48281968 0
12.064404 -1.0220134 -0.47235346 0
12.149261 -1.0405447 -0.49200535 0
12.263598 -1.0245692 -0.48709428 0
12.343352 -1.0334868 -0.46618986 0
12.443274 -1.0606723 -0.47857678 0
12.570492 -1.0669643 -0.47741628 0
12.654973 -1.0297894 -0.49011672 0
12.758558 -1.0530967 -0.4968406 0
12.852019 -1.0406449 -0.47904158 0
12.975877 -1.0364341 -0.47399378 0
13.01641 -1.0250887 -0.47116244 0
10.049202 -0.92445564 -0.41240764 0
10.158241 -0.94292319 -0.41927278 0
10.246645 -0.94858629 -0.4439761 0
10.356493 -0.94020897 -0.44818389 0
10.441937 -0.95036304 -0.44127667 0
10.562212 -0.9458226 -0.45976967 0
10.621959 -0.96168709 -0.46521002 0
10.754902 -0.96379155 -0.44701898 0
10.846409 -0.9595111 -0.45539844 0
10.942399 -0.93204612 -0.47570133 0
11.057687 -0.95116317 -0.48825169 0
11.142654 -0.95583373 -0.48384547 0
11.27585 -0.95677823 -0.47721654 0
11.349288 -0.95788544 -0.48319274 0
11.466718 -0.9687025 -0.49579871 0
11.537498 -0.94769442 -0.48067111 0
11.646078 -0.93988949 -0.48422158 0
11.718585 -0.94283098 -0.48475003 0
11.855473 -0.94083238 -0.46905744 0
11.965123 -0.94511235 -0.47242397 0
12.036102 -0.95282745 -0.49049306 0
12.148753 -0.94751924 -0.47755194 0
12.257112 -0.93882835 -0.47284204 0
12.356084 -0.95098746 -0.488608 0
12.443511 -0.95180988 -0.47184652 0
12.560584 -0.94884574 -0.4924655 0
12.632693 -0.94756836 -0.43733299 0
12.749492 -0.98281711 -0.48249924 0
12.846868 -0.94305247 -0.47827339 0
12.964149 -0.94934386 -0.49210089 0
13.04089 -0.95400017 -0.47774845 0
13.147217 -0.93131399 -0.48884004 0
9.9478054 -0.85324275 -0.41705394 0
10.062284 -0.84638727 -0.42316329 0
10.150577 -0.85835832 -0.42495787 0
10.246389 -0.85884571 -0.44400716 0
10.339523 -0.86970484 -0.43502128 0
10.449604 -0.83987659 -0.44222581 0
10.542311 -0.8327477 -0.44255102 0
10.645705 -0.8385703 -0.44430035 0
10.752673 -0.8553862 -0.4483906 0
10.839499 -0.84081191 -0.46433187 0
10.955548 -0.85412544 -0.47337997 0
11.042212 -0.84039229 -0.46590465 0
11.12333 -0.84329712 -0.45609117 0
11.219984 -0.85240614 -0.47958916 0
11.345327 -0.85913301 -0.48618436 0
11.470385 -0.84379554 -0.49040663 0
11.567112 -0.83563393 -0.48020446 0
11.653798 -0.83178699 -0.45812309 0
11.75129 -0.86429268 -0.47919929 0
11.859293 -0.86127722 -0.48809385 0
11.918135 -0.86974204 -0.49496889 0
12.069077 -0.84534425 -0.47822654 0
12.176327 -0.86652493 -0.47827804 0
12.242823 -0.84536886 -0.46844405 0
12.357417 -0.83852601 -0.46550727 0
12.474882 -0.88800907 -0.49449801 0
12.539678 -0.85052162 -0.48625606 0
12.663199 -0.85896832 -0.49299151 0
12.756541 -0.85094577 -0.48378837 0
12.854762 -0.83070117 -0.48357821 0
12.955143 -0.83342648 -0.48815584 0
13.066096 -0.83036602 -0.48719835 0
13.146192 -0.852005 -0.47940016 0
13.239986 -0.85797966 -0.46510792 0
13.355588 -0.84169179 -0.44824994 0
9.9953632 -0.73704582 -0.41832095 0
10.039481 -0.76006496 -0.42384505 0
10.175415 -0.75133777 -0.44300985 0
10.256868 -0.75806218 -0.4405905 0
10.351277 -0.73376375 -0.45501137 0
10.456343 -0.75554311 -0.45010221 0
10.559326 -0.74691117 -0.44870377 0
10.650171 -0.75355679 -0.43726689 0
10.751703 -0.76141346 -0.43717086 0
10.838239 -0.75333309 -0.45765811 0
10.957436 -0.75414175 -0.47575498 0
11.049858 -0.76855689 -0.46856314 0
11.165031 -0.76525581 -0.48235965 0
11.233787 -0.73697108 -0.47341478 0
11.344965 -0.76117313 -0.47339737 0
11.455036 -0.7467562 -0.46825767 0
11.5511 -0.75712883 -0.47424144 0
11.645985 -0.75696272 -0.49030644 0
11.766373 -0.72498405 -0.47700131 0
11.846225 -0.74664593 -0.49003398 0
11.991265 -0.78154278 -0.4863013 0
12.055431 -0.77124614 -0.47458959 0
12.142561 -0.76318163 -0.48025191 0
12.245072 -0.7498247 -0.47982669 0
12.381809 -0.74224794 -0.47902721 0
12.43654 -0.75041991 -0.48677921 0
12.510462 -0.74706787 -0.46072835 0
12.650986 -0.78503221 -0.46815735 0
12.737289 -0.77349192 -0.47581375 0
12.851677 -0.75572306 -0.48365736 0
12.952513 -0.73856819 -0.48172945 0
13.040557 -0.75056177 -0.48664147 0
13.155162 -0.76451051 -0.47979581 0
13.243823 -0.74304879 -0.47190189 0
13.353613 -0.74921036 -0.44617611 0
13.452792 -0.74622756 -0.44358695 0
9.9377918 -0.66842645 -0.4212513 0
10.026968 -0.64479065 -0.42295849 0
10.162143 -0.62994438 -0.4433974 0
10.245279 -0.66821849 -0.44267672 0
10.347655 -0.67411381 -0.44262278 0
10.440633 -0.62904787 -0.45216346 0
10.540993 -0.66218841 -0.45733368 0
10.647504 -0.64527935 -0.45256072 0
10.743999 -0.64535433 -0.45959532 0
10.846958 -0.66252571 -0.44504249 0
10.944802 -0.63911998 -0.45401001 0
11.056669 -0.63940299 -0.46630228 0
11.142433 -0.65084702 -0.47383541 0
11.243795 -0.67697692 -0.46491098 0
11.370972 -0.62641883 -0.47245431 0
11.452342 -0.64592278 -0.48673058 0
11.546072 -0.65398079 -0.47912121 0
11.633553 -0.65002245 -0.46537673 0
11.747543 -0.64438856 -0.4943459 0
11.851774 -0.64136517 -0.4803009 0
11.933846 -0.64125133 -0.47672039 0
12.038523 -0.61634636 -0.48343039 0
12.167688 -0.62874883 -0.47580779 0
12.26174 -0.68094486 -0.4783715 0
12.354956 -0.65296364 -0.4733808 0
12.44208 -0.65997869 -0.48616612 0
12.568477 -0.65904778 -0.48823202 0
12.645714 -0.64285088 -0.47444403 0
12.754016 -0.64939862 -0.49120361 0
12.863489 -0.62330377 -0.47350258 0
12.948892 -0.6392585 -0.48709953 0
13.055367 -0.64684123 -0.47924757 0
13.169754 -0.64733195 -0.4629389 0
13.253164 -0.65032625 -0.47336262 0
13.356402 -0.64407289 -0.46144432 0
13.456251 -0.62031364 -0.44993275 0
13.542576 -0.66202974 -0.44037032 0
13.681743 -0.65082806 -0.45471573 0
13.778597 -0.63983375 -0.45228469 0
14.163942 -0.63798153 -0.44393528 0
14.26065 -0.64385074 -0.44984353 0
14.356427 -0.65296704 -0.43852019 0
14.4375 -0.66407675 -0.44506359 0
14.565204 -0.65639782 -0.43559694 0
14.669041 -0.64570844 -0.42373157 0
14.759449 -0.64911383 -0.42922556 0
9.9284248 -0.55920172 -0.42340374 0
10.054724 -0.55594933 -0.42221975 0
10.165895 -0.56673557 -0.42683733 0
10.2563 -0.54978359 -0.46434343 0
10.334199 -0.53880012 -0.45167971 0
10.458875 -0.5387432 -0.44455981 0
10.581731 -0.53980869 -0.46167099 0
10.63744 -0.56128752 -0.44527453 0
10.75271 -0.54120249 -0.44946373 0
10.844687 -0.5514822 -0.45646071 0
10.947534 -0.55389124 -0.45956171 0
11.01967 -0.54324257 -0.44770402 0
11.131738 -0.54587835 -0.47532016 0
11.241825 -0.55275959 -0.48494875 0
11.348182 -0.53564227 -0.47710717 0
11.46077 -0.55172944 -0.45775521 0
11.545166 -0.54968846 -0.49086273 0
11.747355 -0.55872744 -0.48433042 0
11.851766 -0.5280354 -0.46610934 0
11.951447 -0.54590768 -0.48263282 0
12.045125 -0.5385766 -0.4756434 0
12.137093 -0.5628863 -0.47348869 0
12.234229 -0.56628418 -0.48681962 0
12.350527 -0.54694605 -0.49811131 0
12.428891 -0.55570775 -0.47793615 0
12.546976 -0.56496567 -0.47695863 0
12.660446 -0.56123167 -0.48381102 0
12.762901 -0.53869253 -0.48004133 0
12.855247 -0.55887723 -0.48326361 0
12.976285 -0.53296119 -0.47692227 0
13.050332 -0.54687023 -0.48049057 0
13.154486 -0.56762058 -0.47338271 0
13.250308 -0.55315655 -0.4721455 0
13.365405 -0.54029727 -0.44974923 0
13.464981 -0.54608899 -0.43467891 0
13.550103 -0.53488052 -0.45016766 0
13.651196 -0.54506105 -0.44350469 0
13.752845 -0.55255258 -0.44397902 0
13.855749 -0.55655545 -0.44226623 0
13.964227 -0.5440768 -0.46259081 0
14.051126 -0.55510908 -0.43983275 0
14.150424 -0.54437613 -0.44041288 0
14.266653 -0.55557185 -0.43372405 0
14.35895 -0.57459795 -0.43544257 0
14.449423 -0.56211531 -0.43350667 0
14.550461 -0.52703959 -0.4224928 0
14.629677 -0.56210059 -0.4274925 0
14.730112 -0.55930722 -0.4171437 0
14.864023 -0.58442402 -0.42523891 0
14.957359 -0.54641908 -0.42672884 0
15.064323 -0.54989213 -0.42604989 0
9.8403234 -0.44076598 -0.41999412 0
9.9678535 -0.49562767 -0.4127177 0
10.053469 -0.44046646 -0.43289793 0
10.150877 -0.4414314 -0.44249547 0
10.25009 -0.42686641 -0.44046831 0
10.365668 -0.46370235 -0.45351672 0
10.47299 -0.43474671 -0.43461221 0
10.546018 -0.44028303 -0.46352756 0
10.641439 -0.44507733 -0.45689166 0
10.766837 -0.44887307 -0.45824575 0
10.856546 -0.44649154 -0.44630778 0
10.958412 -0.46566719 -0.43806052 0
11.041191 -0.45909902 -0.45399392 0
11.170397 -0.4368152 -0.483316 0
11.229204 -0.43772814 -0.47403818 0
11.340551 -0.45686275 -0.48150873 0
11.4354 -0.43842772 -0.48898798 0
11.54478 -0.46818331 -0.48845792 0
11.657717 -0.43447521 -0.491678 0
11.769927 -0.46581113 -0.47467315 0
11.839622 -0.44239283 -0.47481525 0
11.944202 -0.43954042 -0.48172629 0
12.054338 -0.44307896 -0.46908164 0
12.161488 -0.44898084 -0.48115957 0
12.239208 -0.45681709 -0.48697174 0
12.353641 -0.43383378 -0.47382772 0
12.438513 -0.47168881 -0.48177803 0
12.543109 -0.46526536 -0.48309171 0
12.627776 -0.44655931 -0.48435682 0
12.777888 -0.4204672 -0.48553121 0
12.827663 -0.48298725 -0.45988929 0
12.940916 -0.44861341 -0.48340154 0
13.055658 -0.45178199 -0.48075843 0
13.164628 -0.43609169 -0.48279464 0
13.245919 -0.46901032 -0.47443759 0
13.345277 -0.47065476 -0.46734059 0
13.432609 -0.46728277 -0.4453631 0
13.550981 -0.45544159 -0.45447946 0
13.655477 -0.46372613 -0.4400174 0
13.743423 -0.43629739 -0.42913496 0
13.848351 -0.44575593 -0.45567131 0
13.945955 -0.44411886 -0.44821644 0
14.058817 -0.45316818 -0.44029462 0
14.15378 -0.4408116 -0.43079829 0
14.261249 -0.47964293 -0.43464255 0
14.363566 -0.46208021 -0.42306972 0
14.465634 -0.4580718 -0.43138325 0
14.559024 -0.44675782 -0.43186057 0
14.647933 -0.44246837 -0.42248732 0
14.740722 -0.46246806 -0.42076969 0
14.882332 -0.4367069 -0.42197597 0
14.93738 -0.46274927 -0.41462189 0
15.064857 -0.43421957 -0.42665887 0
15.148258 -0.46365973 -0.42263913 0
15.253686 -0.42479268 -0.42858881 0
15.326044 -0.47095704 -0.42669636 0
15.422354 -0.43727925 -0.42555726 0
15.52366 -0.44462365 -0.42346597 0
9.8463783 -0.35749704 -0.41829431 0
9.9475975 -0.34624919 -0.42918992 0
10.040918 -0.3369616 -0.43102336 0
10.142418 -0.35066289 -0.43312681 0
10.253257 -0.35277739 -0.44389576 0
10.357332 -0.35108331 -0.447218 0
10.430557 -0.3390854 -0.44731504 0
10.562066 -0.35213482 -0.45078629 0
10.671697 -0.33950159 -0.44009757 0
10.741704 -0.34776661 -0.46116781 0
10.860751 -0.32857066 -0.44848096 0
10.955742 -0.34804827 -0.43598211 0
11.053611 -0.35329613 -0.47114104 0
11.178027 -0.3432211 -0.48244661 0
11.249148 -0.36602864 -0.48434711 0
11.35933 -0.34743047 -0.46225405 0
11.461768 -0.34319854 -0.46167624 0
11.532474 -0.35834661 -0.47058451 0
11.656429 -0.34549263 -0.47492909 0
11.735785 -0.33663595 -0.46101511 0
11.85599 -0.34457216 -0.44902045 0
11.940389 -0.33968478 -0.47111273 0
12.047619 -0.34759817 -0.46737778 0
12.158326 -0.3607069 -0.4676677 0
12.273406 -0.34803683 -0.47453737 0
12.331859 -0.34162956 -0.48625392 0
12.44679 -0.35352847 -0.47465539 0
12.633011 -0.34815761 -0.47009194 0
12.759406 -0.33698592 -0.48125315 0
12.841642 -0.35854495 -0.47714996 0
12.944516 -0.33403951 -0.47285265 0
13.049544 -0.34647986 -0.47236991 0
13.141463 -0.34349093 -0.47382116 0
13.223846 -0.35504776 -0.47498858 0
13.36533 -0.35575587 -0.43994868 0
13.47583 -0.34260124 -0.43968892 0
13.557376 -0.33986136 -0.4339993 0
13.655053 -0.35003063 -0.44990742 0
13.769081 -0.36116344 -0.45146793 0
13.843534 -0.33891878 -0.46154249 0
13.950258 -0.34933421 -0.44827694 0
14.056278 -0.34817109 -0.43251193 0
14.140356 -0.35249031 -0.4282071 0
14.261783 -0.33974117 -0.42617476 0
14.354968 -0.33467767 -0.42642295 0
14.435432 -0.35993212 -0.42605197 0
14.561286 -0.32859433 -0.42062879 0
14.662419 -0.34548345 -0.41610062 0
14.71036 -0.3705574 -0.42014396 0
14.885344 -0.31044441 -0.42726111 0
14.974158 -0.38175592 -0.43359578 0
15.051577 -0.36049044 -0.43059897 0
15.142079 -0.33875564 -0.4353205 0
15.240714 -0.34885275 -0.42918152 0
15.358745 -0.34341621 -0.43342119 0
15.466918 -0.347009 -0.42550039 0
15.55401 -0.36068305 -0.42746514 0
15.651365 -0.37608773 -0.42302775 0
15.748591 -0.36157981 -0.42685592 0
15.855982 -0.3582702 -0.4224034 0
9.8503466 -0.25737113 -0.42349499 0
9.9432163 -0.26036283 -0.42227083 0
10.041942 -0.23719534 -0.42292798 0
10.169535 -0.24097247 -0.42645419 0
10.274817 -0.25709191 -0.45959169 0
10.350348 -0.2515918 -0.44238198 0
10.452111 -0.24995424 -0.44999665 0
10.551097 -0.27157688 -0.4447155 0
10.647845 -0.24583395 -0.44659817 0
10.737917 -0.25900748 -0.45445943 0
10.852049 -0.24983521 -0.43648767 0
10.948563 -0.24860705 -0.44221562 0
11.050212 -0.25118798 -0.45213997 0
11.151579 -0.2390642 -0.45749342 0
11.264763 -0.26041624 -0.45335549 0
11.355949 -0.26225978 -0.46272707 0
11.452914 -0.23927698 -0.45840287 0
11.553793 -0.24892403 -0.45257384 0
11.641767 -0.24833372 -0.45823395 0
11.744145 -0.26106125 -0.44632411 0
11.840795 -0.2659744 -0.45505905 0
11.959007 -0.24823624 -0.44467545 0
12.04528 -0.24384692 -0.45152676 0
12.151327 -0.23784135 -0.46155179 0
12.240963 -0.23858002 -0.47468889 0
12.34116 -0.2450662 -0.47381353 0
12.489039 -0.24269237 -0.47122967 0
12.551276 -0.25453553 -0.48537302 0
12.657597 -0.24410436 -0.47995949 0
12.755801 -0.23717169 -0.47371119 0
12.842912 -0.23852073 -0.47197938 0
12.920008 -0.24750926 -0.47419059 0
13.033361 -0.2545464 -0.46401668 0
13.15678 -0.25308514 -0.45494771 0
13.236345 -0.25878322 -0.4504872 0
13.366481 -0.2064825 -0.46737152 0
13.457929 -0.24751925 -0.44199401 0
13.557083 -0.25606766 -0.43688071 0
13.640318 -0.2345258 -0.44260943 0
13.743134 -0.25217235 -0.43691719 0
13.838784 -0.23509264 -0.44312119 0
13.941692 -0.25710711 -0.44065166 0
14.043027 -0.25382984 -0.42977411 0
14.128024 -0.22796768 -0.42327702 0
14.236595 -0.23924173 -0.41978562 0
14.330179 -0.23830967 -0.41887265 0
14.457927 -0.26348981 -0.42295372 0
14.581039 -0.2635538 -0.42111754 0
14.638493 -0.22422409 -0.42231941 0
14.748533 -0.21537982 -0.43391913 0
14.87608 -0.23815033 -0.43138385 0
14.956852 -0.26127446 -0.41153872 0
15.004921 -0.21222459 -0.41490877 0
15.138953 -0.2422244 -0.4176563 0
15.238152 -0.24501035 -0.43455523 0
15.349212 -0.20919535 -0.44427091 0
15.462265 -0.2388915 -0.41318583 0
15.547722 -0.25196305 -0.42520303 0
15.646317 -0.25370097 -0.42171586 0
15.753041 -0.269036 -0.42881775 0
15.86914 -0.25876909 -0.42985034 0
15.953194 -0.23012424 -0.43770981 0
16.065294 -0.22947776 -0.42182934 0
16.160202 -0.2468621 -0.42706978 0
16.237225 -0.26322895 -0.42521828 0
16.324848 -0.25974965 -0.41693413 0
9.8566599 -0.15275538 -0.41958106 0
9.9361954 -0.14839168 -0.41715503 0
10.059813 -0.1572787 -0.41975284 0
10.148352 -0.14932527 -0.44325924 0
10.245997 -0.13465336 -0.45510662 0
10.341541 -0.15299173 -0.45605093 0
10.421354 -0.16713902 -0.4591589 0
10.559707 -0.14787872 -0.43080407 0
10.651843 -0.15910777 -0.44351268 0
10.747226 -0.15325935 -0.44687426 0
10.85231 -0.15319093 -0.45233041 0
10.956319 -0.1413776 -0.46659344 0
11.021619 -0.15005121 -0.46148658 0
11.154152 -0.15549865 -0.45318496 0
11.22825 -0.14825757 -0.4397558 0
11.347712 -0.16510703 -0.45174748 0
11.447192 -0.14998332 -0.4538039 0
11.567385 -0.15411326 -0.44883525 0
11.632723 -0.13896969 -0.44422567 0
11.740772 -0.1432164 -0.4486776 0
11.869144 -0.16005763 -0.45647097 0
11.954958 -0.15559031 -0.44454885 0
12.071254 -0.1565126 -0.44305545 0
12.145785 -0.1457926 -0.44283521 0
12.263947 -0.14191115 -0.44666541 0
12.349424 -0.13722961 -0.45310372 0
12.448039 -0.15241741 -0.46882212 0
12.552665 -0.14150828 -0.47201282 0
12.656366 -0.13745803 -0.46681428 0
12.753275 -0.14736852 -0.46347743 0
12.857687 -0.13357149 -0.44644821 0
12.945259 -0.15582852 -0.45017672 0
13.053362 -0.1299883 -0.45737553 0
13.159119 -0.13117424 -0.4583286 0
13.238293 -0.13754763 -0.45216298 0
13.358689 -0.14360441 -0.41906393 0
13.432246 -0.14270875 -0.45237046 0
13.550551 -0.15321405 -0.44844127 0
13.653419 -0.16909854 -0.43292177 0
13.769389 -0.16417131 -0.41988432 0
13.844617 -0.14732644 -0.45322967 0
13.942921 -0.16858114 -0.43998438 0
14.043591 -0.14638583 -0.42700505 0
14.152432 -0.15887146 -0.42756367 0
14.240459 -0.16375904 -0.43199348 0
14.32241 -0.14660762 -0.4256357 0
14.453886 -0.1247577 -0.42360538 0
14.553284 -0.18812941 -0.43087828 0
14.652589 -0.13910897 -0.417467 0
14.762477 -0.15367691 -0.42184639 0
14.84706 -0.15748496 -0.42704749 0
14.967355 -0.15305445 -0.42510521 0
15.04391 -0.12735449 -0.43554342 0
15.119515 -0.15627113 -0.42972344 0
15.25679 -0.13177098 -0.42014498 0
15.373998 -0.15311106 -0.41311109 0
15.448392 -0.15529425 -0.42347658 0
15.543024 -0.1365868 -0.42018151 0
15.635508 -0.15655524 -0.43108749 0
15.75126 -0.13760221 -0.43434143 0
15.85926 -0.14438894 -0.41963744 0
15.933372 -0.14885072 -0.42236531 0
16.051636 -0.15928306 -0.42074895 0
16.132244 -0.15615498 -0.42153108 0
16.252546 -0.18265793 -0.42015803 0
16.386295 -0.14939903 -0.42130923 0
16.467768 -0.16085126 -0.42746103 0
16.556004 -0.15552971 -0.42305022 0
16.689396 -0.1592278 -0.42266452 0
16.757692 -0.14571282 -0.44253647 0
9.8609781 -0.060872786 -0.42237532 0
9.9591293 -0.015697418 -0.4168244 0
10.028095 -0.0490206 -0.42967463 0
10.146092 -0.052912276 -0.43288243 0
10.258193 -0.078017846 -0.44359386 0
10.320833 -0.044299539 -0.44330466 0
10.445606 -0.040253073 -0.45443439 0
10.565947 -0.044603959 -0.4534198 0
10.634449 -0.056705244 -0.40957427 0
10.760511 -0.060613766 -0.4408353 0
10.845034 -0.054729372 -0.46225423 0
10.96401 -0.080792576 -0.4502098 0
11.050116 -0.081012644 -0.45497477 0
11.161956 -0.063601561 -0.44245422 0
11.258256 -0.045824129 -0.44656247 0
11.368888 -0.052793838 -0.45249295 0
11.438707 -0.052214913 -0.44577253 0
11.540141 -0.057486411 -0.4320178 0
11.652531 -0.064682677 -0.44910765 0
11.741138 -0.024817077 -0.45666456 0
11.842347 -0.051148761 -0.44959927 0
11.946758 -0.040243793 -0.44499403 0
12.035368 -0.071127087 -0.44539189 0
12.148649 -0.045190323 -0.44954717 0
12.257493 -0.049792591 -0.44572675 0
12.336337 -0.072042704 -0.43254566 0
12.455317 -0.056768484 -0.45352983 0
12.533509 -0.069564342 -0.4618721 0
12.645473 -0.037276756 -0.45491469 0
12.749729 -0.053105161 -0.44112432 0
12.850653 -0.041784495 -0.44690287 0
12.952683 -0.047842622 -0.4400934 0
13.041113 -0.061466485 -0.44739449 0
13.17074 -0.057452995 -0.44618142 0
13.250103 -0.036599956 -0.44229424 0
13.354993 -0.042232707 -0.46384335 0
13.441463 -0.049974147 -0.44911164 0
13.541353 -0.035427328 -0.45357358 0
13.644397 -0.048459768 -0.44568849 0
13.742038 -0.075729139 -0.42549419 0
13.839763 -0.052872676 -0.44657481 0
13.953319 -0.038161024 -0.44384575 0
14.048635 -0.050620802 -0.44011784 0
14.130473 -0.055412561 -0.42627543 0
14.235701 -0.059398111 -0.42717206 0
14.360866 -0.056804091 -0.43397921 0
14.442061 -0.059437849 -0.42262542 0
14.5158 -0.01311749 -0.46703345 0
14.661904 -0.057842106 -0.42362416 0
14.777302 -0.044302184 -0.4010222 0
14.864505 -0.0540202 -0.41436243 0
14.997104 -0.082026497 -0.40515387 0
15.071488 -0.099500306 -0.40221697 0
15.154139 -0.044663101 -0.4234935 0
15.266289 -0.02434559 -0.42299604 0
15.345058 -0.042181976 -0.43015385 0
15.550904 -0.021875417 -0.41826123 0
15.643646 -0.029345531 -0.41507256 0
15.760815 -0.050111145 -0.43337834 0
15.847746 -0.032397434 -0.41769171 0
16.055571 -0.076248057 -0.42560399 0
16.169588 -0.051411942 -0.43121183 0
16.269236 -0.025519272 -0.42038 0
16.346582 -0.064007886 -0.44590187 0
16.451464 -0.064062715 -0.42748809 0
16.558865 -0.037768692 -0.42832994 0
16.649658 -0.030118125 -0.42845809 0
16.760048 -0.066092633 -0.42443848 0
16.855587 -0.062704869 -0.42728949 0
16.905415 -0.075127445 -0.41975653 0
17.056034 -0.029775418 -0.42428601 0
17.155504 -0.03646018 -0.43163788 0
9.7692184 0.045005701 -0.41651273 0
9.8750725 0.032828994 -0.41524243 0
9.9487801 0.044212144 -0.42218804 0
10.031495 0.075704344 -0.42921817 0
10.16663 0.06608393 -0.43525946 0
10.265636 0.049503792 -0.4387759 0
10.355419 0.047341105 -0.44690573 0
10.46456 0.045194935 -0.45519155 0
10.548631 0.053895436 -0.4429155 0
10.636856 0.045823216 -0.43923837 0
10.749461 0.058039527 -0.44125819 0
10.856043 0.062701337 -0.44319963 0
10.950143 0.045000628 -0.44906068 0
11.030964 0.033183958 -0.44445992 0
11.145553 0.051481541 -0.44181311 0
11.235433 0.049732201 -0.46102989 0
11.362264 0.057202395 -0.44829333 0
11.443654 0.041739319 -0.4440347 0
11.566672 0.05294409 -0.44756639 0
11.674491 0.046711251 -0.44935411 0
11.750667 0.042856339 -0.44737625 0
11.848645 0.056550667 -0.45054269 0
11.968696 0.051241186 -0.43996763 0
12.054064 0.047724571 -0.4604429 0
12.142705 0.059045471 -0.4446696 0
12.263596 0.063856371 -0.44643164 0
12.358905 0.030966712 -0.44369304 0
12.453464 0.033022158 -0.45292377 0
12.555085 0.04613743 -0.45034158 0
12.630793 0.048190441 -0.44350493 0
12.761784 0.046124376 -0.4413296 0
12.83877 0.040096674 -0.43758935 0
12.959497 0.067934237 -0.46562958 0
13.065018 0.049253635 -0.45268005 0
13.138137 0.059412397 -0.44355768 0
13.272927 0.061486002 -0.45724761 0
13.358525 0.047821395 -0.45096093 0
13.461574 0.046284296 -0.45126963 0
13.53087 0.062193803 -0.44098616 0
13.656869 0.035751566 -0.43117923 0
13.743829 0.038272329 -0.43671513 0
13.853897 0.077362634 -0.42952812 0
13.962671 0.040297866 -0.43475991 0
14.051108 0.037825521 -0.44338202 0
14.150282 0.050435632 -0.42784268 0
14.246626 0.060195595 -0.42485821 0
14.358052 0.029876662 -0.43063378 0
14.449237 0.06160453 -0.4324311 0
14.559237 0.048041325 -0.42053521 0
14.635267 0.045055609 -0.42512441 0
14.745585 0.054508287 -0.41599441 0
14.844209 0.063755691 -0.41487885 0
15.046672 0.057272505 -0.42553842 0
15.166206 0.053570498 -0.42348242 0
15.2479 0.04525369 -0.42666757 0
15.353586 0.027252184 -0.42267215 0
15.434243 0.047835294 -0.42058885 0
15.553488 0.049153928 -0.40014005 0
15.648327 0.013117638 -0.42347032 0
15.769376 0.053717427 -0.42243612 0
15.866649 0.069805168 -0.43186629 0
15.949208 0.063709766 -0.42549455 0
16.047525 0.068213046 -0.42181051 0
16.167929 0.029082894 -0.4310059 0
16.241568 0.05275622 -0.42150223 0
16.330057 0.054610908 -0.42823768 0
16.489786 0.024581026 -0.42534328 0
16.550406 0.034592867 -0.4363777 0
16.659466 0.06287659 -0.42652601 0
16.764791 0.057855807 -0.42073691 0
16.818743 0.04856861 -0.43168736 0
16.955206 0.059596587 -0.42654198 0
17.036188 0.040672917 -0.42193103 0
17.148003 0.051680826 -0.42725718 0
17.254738 0.033183854 -0.418046 0
17.346209 0.020296415 -0.4238832 0
17.45149 0.05116047 -0.43053257 0
17.53867 0.066609278 -0.42158878 0
17.632597 0.079499051 -0.41114271 0
9.7528963 0.14800291 -0.41816503 0
9.8242874 0.14619455 -0.4173218 0
9.9603148 0.1549097 -0.42287874 0
10.058384 0.1365557 -0.42706156 0
10.133418 0.13346626 -0.44431394 0
10.248211 0.15451615 -0.44412577 0
10.345964 0.15412478 -0.46094501 0
10.449601 0.16317952 -0.45026267 0
10.549799 0.1386551 -0.4518528 0
10.654193 0.15097666 -0.44420499 0
10.723486 0.13392977 -0.44998205 0
10.862538 0.13075864 -0.44365895 0
10.969544 0.14237703 -0.44109583 0
11.049184 0.14321315 -0.44539332 0
11.153952 0.15189174 -0.45094985 0
11.252024 0.16307428 -0.46215022 0
11.345623 0.1357542 -0.43497753 0
11.448346 0.15324554 -0.4470616 0
11.542233 0.15565948 -0.4528349 0
11.645258 0.12703972 -0.44106412 0
11.762329 0.16425811 -0.46013081 0
11.854919 0.16587363 -0.44370222 0
11.934682 0.1532273 -0.44964278 0
12.0429 0.13788281 -0.44014132 0
12.167877 0.16391483 -0.43997359 0
12.237999 0.1675448 -0.46321434 0
12.383943 0.14348572 -0.45133281 0
12.45336 0.1422689 -0.4433229 0
12.549288 0.14616315 -0.44017839 0
12.648928 0.15959887 -0.440364 0
12.75508 0.14801258 -0.43942475 0
12.842196 0.15810195 -0.44806564 0
12.944891 0.14477696 -0.45286435 0
13.052163 0.1446006 -0.44595248 0
13.143265 0.14559339 -0.44883567 0
13.256632 0.15986277 -0.46485174 0
13.353938 0.15527251 -0.44720483 0
13.442925 0.15856561 -0.4464525 0
13.537827 0.13692522 -0.44808775 0
13.640755 0.16342781 -0.45385784 0
13.749317 0.16279115 -0.44131863 0
13.868173 0.15196854 -0.4570471 0
13.942973 0.17305019 -0.44076598 0
14.02972 0.1164382 -0.43120432 0
14.161354 0.15112653 -0.43402219 0
14.24154 0.15830997 -0.42945838 0
14.335441 0.13539299 -0.42460245 0
14.433202 0.15793978 -0.42598164 0
14.557096 0.16376813 -0.42200148 0
14.643997 0.16538203 -0.42371893 0
14.742624 0.18621735 -0.42201436 0
14.86245 0.15843278 -0.41770351 0
14.929385 0.15646903 -0.42515898 0
15.031896 0.17219904 -0.41129375 0
15.164831 0.14425561 -0.42253292 0
15.21823 0.14050075 -0.41902155 0
15.353186 0.15054964 -0.42005199 0
15.490814 0.13128774 -0.43266475 0
15.551933 0.15132631 -0.43136144 0
15.653227 0.1506606 -0.4333812 0
15.800417 0.1049416 -0.40757108 0
15.950695 0.1525003 -0.43010235 0
16.062639 0.16723292 -0.42547286 0
16.152996 0.15273739 -0.42221069 0
16.270477 0.14786474 -0.42583644 0
16.359119 0.14964621 -0.42763662 0
16.447016 0.11625758 -0.44000077 0
16.555735 0.14425209 -0.42572296 0
16.640408 0.15580608 -0.42464328 0
16.754156 0.13102201 -0.42762959 0
16.84947 0.13978274 -0.42210901 0
16.927277 0.14049044 -0.41878945 0
17.0397 0.15214467 -0.42997253 0
17.121584 0.14247014 -0.42023647 0
17.241842 0.13850124 -0.42333633 0
17.352051 0.16349323 -0.42675829 0
17.429102 0.15730485 -0.42456686 0
17.523319 0.16057844 -0.43250787 0
17.647442 0.14811631 -0.43292558 0
17.779409 0.13007297 -0.42850059 0
17.838915 0.16176596 -0.42812133 0
17.957317 0.14473209 -0.42843604 0
18.019751 0.15253243 -0.42289376 0
18.128517 0.16304778 -0.41911113 0
9.7721653 0.20339295 -0.41594386 0
9.8594074 0.26665425 -0.41424388 0
9.9974985 0.27993575 -0.40288162 0
10.076408 0.2476263 -0.4233945 0
10.154833 0.2625308 -0.4404878 0
10.256142 0.24406466 -0.4523139 0
10.342787 0.25930056 -0.45670974 0
10.461242 0.23842263 -0.45398831 0
10.533557 0.24401397 -0.44073355 0
10.65172 0.25982264 -0.4502362 0
10.756907 0.23883715 -0.45445895 0
10.844502 0.24436437 -0.4533577 0
10.947439 0.242513 -0.44678628 0
11.043789 0.25737265 -0.44404197 0
11.165078 0.24361518 -0.44815916 0
11.242656 0.26136804 -0.44819748 0
11.336035 0.23883666 -0.45339733 0
11.44765 0.27325752 -0.43646729 0
11.559821 0.25396132 -0.45722771 0
11.655743 0.24788755 -0.45172393 0
11.752364 0.245406 -0.43562758 0
11.831332 0.26900983 -0.4325037 0
11.95619 0.25765106 -0.45077813 0
12.041452 0.23503076 -0.43621957 0
12.164886 0.24909654 -0.45006573 0
12.242801 0.24643268 -0.44532257 0
12.334764 0.26482233 -0.44536352 0
12.463312 0.26223117 -0.43893081 0
12.554695 0.24734607 -0.4495554 0
12.64623 0.25033638 -0.44015074 0
12.749948 0.24953718 -0.43824989 0
12.858395 0.24453431 -0.44790071 0
12.953349 0.26602343 -0.44259572 0
13.052818 0.23405737 -0.43797535 0
13.136052 0.244534 -0.44505095 0
13.246641 0.24911943 -0.45907688 0
13.354001 0.24718416 -0.44452345 0
13.442594 0.22866416 -0.44433379 0
13.552593 0.25950888 -0.43968999 0
13.638165 0.265843 -0.43868184 0
13.730491 0.25383985 -0.45001245 0
13.830803 0.2591373 -0.43113828 0
13.96886 0.25802472 -0.45603359 0
14.05037 0.24010932 -0.43696725 0
14.147278 0.23527893 -0.44085264 0
14.251674 0.2464592 -0.42510068 0
14.336166 0.24276656 -0.42387223 0
14.447403 0.2676456 -0.42465425 0
14.558862 0.2306361 -0.42287779 0
14.620755 0.24631529 -0.42563844 0
14.765098 0.25189647 -0.42764056 0
14.860415 0.24558984 -0.4226768 0
14.949509 0.26961005 -0.42328358 0
15.056099 0.28580663 -0.42047161 0
15.137553 0.23273233 -0.42591572 0
15.238414 0.23903213 -0.41394544 0
15.370387 0.26076791 -0.4225924 0
15.44108 0.25159919 -0.41485822 0
15.570803 0.25584945 -0.42551327 0
15.64887 0.25495362 -0.42355764 0
15.757624 0.26448902 -0.42312306 0
15.83672 0.2497412 -0.42814976 0
15.946362 0.27648142 -0.42622709 0
16.045094 0.23629527 -0.42208374 0
16.165371 0.25583267 -0.41746777 0
16.260914 0.23918553 -0.41922867 0
16.346243 0.2440237 -0.41547638 0
16.448299 0.25345618 -0.43743229 0
16.548496 0.24707942 -0.42575449 0
16.625553 0.28067759 -0.43375981 0
16.746471 0.2603797 -0.42736077 0
16.857447 0.27978602 -0.41850698 0
16.954588 0.25831255 -0.42517102 0
17.034164 0.25080827 -0.42194772 0
17.159576 0.26111737 -0.4339602 0
17.225662 0.24628118 -0.43300754 0
17.364285 0.21371666 -0.40822834 0
17.439016 0.28203121 -0.43397045 0
17.545311 0.23111908 -0.42719245 0
17.64851 0.25997779 -0.42349881 0
17.71434 0.25236771 -0.43233764 0
17.854179 0.25471872 -0.4169507 0
17.949442 0.23845921 -0.42254722 0
18.053707 0.24488162 -0.42529202 0
18.149126 0.25228509 -0.42450988 0
18.232628 0.25250942 -0.42008114 0
18.34343 0.22094449 -0.42700022 0
18.463776 0.25228077 -0.42561752 0
9.6465921 0.34303457 -0.41280204 0
9.761034 0.32826412 -0.4219141 0
9.8560171 0.34047493 -0.42560744 0
9.9185867 0.33190909 -0.42245179 0
10.066704 0.32212248 -0.41924602 0
10.1513 0.33473417 -0.42971206 0
10.242307 0.35100085 -0.43617177 0
10.356719 0.35118163 -0.434268 0
10.442683 0.3510904 -0.44101512 0
10.557905 0.35543025 -0.43872941 0
10.635494 0.36854842 -0.44177186 0
10.759501 0.36258188 -0.44040573 0
10.853787 0.35610825 -0.44029939 0
10.953317 0.34465843 -0.44906163 0
11.04714 0.35185474 -0.45436007 0
11.136477 0.37093082 -0.44785249 0
11.251939 0.33948535 -0.44082832 0
11.351742 0.35408831 -0.44270766 0
11.448131 0.33560276 -0.45754039 0
11.550631 0.35312593 -0.4490642 0
11.678531 0.34488106 -0.44288456 0
11.752282 0.34016168 -0.4570471 0
11.834707 0.34252471 -0.45070958 0
11.948113 0.36996591 -0.42878294 0
12.043322 0.34074757 -0.46336681 0
12.149607 0.35468498 -0.44100672 0
12.22894 0.35646614 -0.44916201 0
12.345448 0.32764524 -0.45753431 0
12.455363 0.34942329 -0.43304157 0
12.533326 0.36846152 -0.44439125 0
12.648546 0.35823923 -0.4510839 0
12.753357 0.36474854 -0.44819391 0
12.84183 0.3605985 -0.43727946 0
12.961271 0.34366295 -0.43418282 0
13.031178 0.35118693 -0.44561249 0
13.169465 0.35740536 -0.44012511 0
13.252116 0.37115246 -0.43297148 0
13.360278 0.34272844 -0.43890071 0
13.446436 0.33812955 -0.44273949 0
13.558805 0.34943113 -0.44193321 0
13.666853 0.3310279 -0.44055319 0
13.743458 0.35595641 -0.44689786 0
13.841176 0.34042209 -0.43816316 0
13.938718 0.36351663 -0.45002806 0
14.064556 0.36117208 -0.44680989 0
14.150628 0.3635695 -0.4399755 0
14.236474 0.35662881 -0.43198627 0
14.339822 0.36130479 -0.42427027 0
14.433591 0.32325965 -0.41783392 0
14.550491 0.32297778 -0.42953944 0
14.638823 0.37176019 -0.42018884 0
14.783863 0.36212543 -0.42376101 0
14.867581 0.33836439 -0.42578721 0
14.963395 0.33680001 -0.42409188 0
15.042928 0.35229254 -0.42071414 0
15.163281 0.37269214 -0.4191767 0
15.254909 0.37042111 -0.42719322 0
15.377741 0.317873 -0.42767698 0
15.441543 0.38079032 -0.43237877 0
15.565063 0.32282537 -0.42352474 0
15.661516 0.36121693 -0.4262346 0
15.726891 0.39334875 -0.42056298 0
